# 3D point list with one line of data per point:
#   POINT3D_ID, X, Y, Z, R, G, B, ERROR, TRACK[] as (IMAGE_ID, POINT2D_IDX)
# Number of points: 373, mean track length: 7.2859174964438118
1273 -2.5984075162102283 -0.0019730084683766001 -0.0026078354769796261 91 67 27 0.32858022147774391 12 575 13 531 10 648
1276 -2.6067161857459387 -0.24740768256968104 0.001541256966771018 109 87 38 1.4953283471232 11 551 13 595 8 637 10 683 5 248
1277 -4.7991922089854375 -0.28063416755691839 0.0031979553085954974 103 80 35 1.2330317756993552 7 1089 13 618 12 652 2 748 1 886
1278 -3.0555996790499704 -0.50029101391295983 0.075775344230631952 110 86 33 1.1970729125903248 11 581 12 657
1279 -0.20989572720566288 -0.16477102526149859 0.60958531812127281 136 105 41 0.41227081786861547 9 644 3 589
1283 5.7693417684199177 -1.8928622749965116 -0.0051815591321352494 114 89 37 2.0361679393718211 10 741 12 727 13 753 10 742 12 726
1284 4.1974769013637685 -1.7271969963554348 0.00028177599923298434 122 100 44 2.3016836201220294 7 1174 10 752 4 656 9 639
1289 6.2928228525839556 -2.1566466389421914 0.0030465517850426765 113 85 37 1.8645374382656825 5 614 6 1449 12 760 10 764 13 791 4 737
1290 5.6979149487926986 -2.1798323918071292 0.011857206367734126 114 86 34 1.9013314808795028 10 779 4 740 13 801 12 772 4 734
1292 -1.9738445207086188 -1.6997268966452135 0.005461110361921314 110 86 36 1.9008384478505425 5 394 9 734 6 1531 1 998 2 873 4 648 10 849 11 649 12 802 13 768 9 733 5 390 7 1193 8 815
1293 1.7355032498221397 -2.2273651990236742 0.020755302167547174 126 96 34 1.6698699781262307 4 745 13 832 12 828 4 747
1297 -1.9842208629031475 -2.1039489643509848 -0.0086295356260542664 134 108 47 1.6116545511811271 5 427 10 868 11 682 8 862 5 429 12 863
1300 0.37930657695263642 -2.710639564885656 0.16309490675037328 139 114 45 1.0301444142555924 4 784 6 1579
1302 -0.29222357389849557 -3.1929317565357143 0.007601435633028052 126 103 46 1.5965070249137792 5 583 7 1298 11 724 13 903 11 725 12 943
1309 -0.28699874354308025 -4.1916576457397499 -0.0052511613616699534 136 112 51 1.0163616198653298 7 1368 11 790 4 897
1311 -1.9795143948486402 -4.1495873603762607 0.0044472946389573194 119 95 44 1.6279264256588808 7 1370 11 804 13 958 2 1024 7 1372 4 890
1315 0.51554377722947153 -4.9963042507125799 0.013033921519851889 106 82 35 1.824205932664946 4 949 10 964 12 1064 11 829 13 989 5 727
1316 -0.27140835893223336 -5.1999675990820675 0.0017228201604299351 107 84 35 1.5282259356100902 4 957 5 728 13 997 12 1076 10 972 2 1066 11 834
1319 -1.9131668734249836 -5.5600482345840954 0.012011870882337537 93 74 27 0.47089111716135457 11 851 12 1095
1320 1.0036555676335994 -6.0022437469605459 0.012107652107386938 108 85 33 0.59478367746035476 4 1008 10 986 12 1101 13 1025
1321 -1.9811580682821104 -5.8419806875170179 0.0066515084852301161 86 64 23 1.5198393583231058 4 986 11 866 12 1110 2 1102 10 1002 11 865
1322 -1.0038226168211377 -6.0006203319056652 0.0073615882468778685 104 82 33 2.150870866769504 12 1114 13 1034 4 1002 11 871 4 1004 2 1101 13 1035 10 1000 11 872 12 1115
1348 -0.018144024617110704 6.6327137494002608 0.039509956093806968 104 77 37 0.73631596842822833 8 237 11 99
1349 -0.004451958409995971 6.4053732991420542 0.006359833299849682 105 79 33 1.4869976862275722 8 247 11 106 4 22 10 75 9 132
1350 -0.2761838634609336 6.403156993431427 0.0055307332900375568 128 102 43 1.2430152493153996 10 78 11 109 4 23 12 28 2 91 9 136 13 31 1 231 6 385 8 244
1351 -0.0061646734798974047 6.1990430624763331 0.0069200755996756073 107 80 36 1.1753911871526457 8 260 10 93 4 28 12 38 2 109 13 39 6 401 9 148 1 252 7 339
1352 1.362151013627384 6.1849945619766729 0.046876016101651853 165 146 75 0.20175971302043683 8 288 7 338
1354 1.8068935387247897 6.0416237817028877 -0.0298273181618956 136 108 50 1.8323390237221817 8 309 10 82 9 129
1356 1.9147851021243467 5.909478423764063 0.0044470910114383887 112 86 29 0.94624793106223082 12 59 13 61 4 38
1359 1.4294976770160075 5.5915104892640315 -0.039868748336929001 107 86 35 1.5770675735171809 11 153 13 83 12 86 13 84
1360 1.4233919515564879 5.5723878641866698 0.01059856324765987 114 91 33 0.24025285445055658 13 86 4 56 12 88
1363 -0.2740168790440905 5.3998066026157643 0.0040431418756756207 137 109 49 1.5481056814542771 8 330 11 165 9 187 6 515 7 423 13 92 2 154 4 68 12 103 1 302 9 188 7 422 10 137
1365 -0.27772502071521671 5.1991918673473254 0.0061892751262969331 138 110 50 1.5492723609079873 10 143 11 171 4 71 12 109 2 163 13 95 1 311 6 534 7 439 8 344 9 194 7 440 9 193
1368 1.3890906260096612 4.350445964848169 -0.073597329349675653 133 99 44 1.5488565426997041 8 395 10 164
1369 -0.3838307691301871 4.6883996164770601 0.5162794582577227 84 61 24 3.7303495325479363 11 196 12 139
1370 -0.0011190535034594491 3.7974300022178835 -0.0001976528497110276 97 74 34 1.3261157689438232 8 405 10 217 11 231 12 183 7 573 9 254 1 397 2 250 13 163 4 118 6 705
1371 1.4335617492420927 3.581275290025332 -0.0035589235501543755 108 86 32 1.8202971942686521 11 237 12 192 13 178 4 124
1372 -0.0027201156045432505 3.5995881164691745 -0.0014717149393318073 92 70 29 0.97088621566979882 10 226 12 199 13 174 4 129 1 407 2 264 11 240 8 421 6 720
1375 -1.744747157758072 1.7272858169919039 -0.022405176782011295 128 100 36 0.51546098087081549 12 321 4 229
1376 1.4388482943447447 1.6217500920740369 -0.02994231314018447 111 89 36 1.0540120259455532 11 322 13 301 12 310
1379 1.9979995228164265 0.97323098997572677 0.0035057408404824872 99 78 28 0.82570058973587945 11 375 13 369 4 285
1380 -2.0038181813180511 0.9944795899197032 -0.0026885057253141077 137 109 50 1.4176096048420055 6 1170 8 541 4 293 5 160 6 1163 7 832 9 476 10 476 13 377 1 605
1381 5.998088137794598 0.56582224380278501 0.020660366644736323 107 80 28 0.72133735691730783 10 330 4 307
1382 1.9875679266836535 0.64691687147488186 -0.028563285726032714 110 81 30 2.1380307779275549 4 310 10 413
1383 5.9985111431432232 0.54853341575145242 0.0062524382464211334 115 87 38 1.6942219748981451 6 936 10 331 4 311
1384 6.9906709753419989 0.52394947503152445 0.0052354024524329697 134 103 43 1.8329635176859931 6 910 4 312 10 321
1386 2.9931832596055341 0.50432790256199711 -0.0042885399958468087 122 90 39 0.68445354609173081 8 685 13 400 10 414 4 321
1387 8.199897181227719 0.26923175450023956 0.0065252651282390745 139 106 47 0.51379183798124883 6 912 4 332
1389 7.1917865133533505 0.25964546759872364 0.0074170440909076965 110 82 32 0.60810207327841725 10 336 4 340
1391 5.7949497158517982 0.26555570475047868 0.0035701695165317581 124 98 42 1.6465285116115713 8 776 10 378 4 346 12 397 1 570 13 417 1 571 2 431 6 994
1398 5.5880471455805827 -0.0030551430700633793 -0.0082989206210056111 114 94 43 1.5217528128717766 8 807 4 419 9 389
1402 3.193655840260385 -0.0017559972385467282 0.0014354373871035774 94 72 32 1.2211436253422581 8 740 12 468 4 427 10 507 13 497 2 517 6 1155 1 654 9 464 7 964 5 329 11 443
1405 2.3966415701117638 -0.00078717878418583522 0.0011648013942630812 96 71 32 1.6835033477392978 8 716 11 452 12 484 10 526 13 503 1 675 5 316 9 487 6 1184 7 969 2 536 4 433
1406 1.3957682701755696 -0.0019752243298061817 0.00078048805841396927 94 70 31 1.1244403991598253 8 697 12 504 2 555 4 438 6 1224 9 511 10 547 11 462 13 508 1 695 7 975 5 304
1407 0.99931364904926989 -0.0035196136409202865 -0.0025378779935675195 93 70 30 1.3327939279159942 8 690 12 511 4 442 9 519 10 555 11 465 13 510 1 705 2 567 6 1236 7 977 5 296
1408 0.39826683320999717 -0.0026223868217859756 -0.0013884666371289192 92 70 32 1.381359410925656 8 679 12 521 4 445 6 1259 10 570 11 472 13 514 1 724 2 586 5 286 7 982 9 537
1410 7.1908906574023543 -0.26285164503570879 0.0059850581932033671 124 98 45 0.83433216047415615 6 1043 10 428 4 469 5 418
1419 3.1936304231624137 -0.27485603734565822 -0.0020493533627241275 120 96 42 1.5508493948997324 8 770 12 533 4 513 6 1205 13 571 1 700 2 561 4 502 7 1030 10 545 2 557 9 503 11 491 5 360
1420 1.6095279692541611 -0.31272127543421246 -0.0025204405242245354 127 99 38 0.64485252160235995 13 588 4 531
1421 -3.203997147041227 -0.27609556927654444 0.0012012717481058636 117 93 41 1.5305927778045323 8 630 9 661 10 716 12 630 1 854 11 559 7 1073 13 606 4 535 2 704 5 240
1422 -1.9923347257122017 -0.35561399146869488 0.0047799321472962644 113 84 35 1.8694776490510887 13 622 4 539
1423 6.9898105673532216 -0.52430244590975794 0.00033519356516401234 127 98 45 1.8038524646121004 6 1100 10 495 4 546 5 442
1424 7.9838090432130926 -1.0004291554230751 0.0073498346521733877 133 111 53 0.88779487661846501 6 1166 4 578 5 517
1425 -0.0031546777005740292 -0.99998044009114373 -0.0019398780669358977 94 72 30 1.4500181479409469 8 772 12 674 4 590 6 1453 11 593 13 671 1 890 10 746 2 751 5 371 9 666 7 1120
1426 4.7605295873375164 -1.0800899479731179 0.017121942961716749 146 116 49 1.4581985366410808 6 1300 4 594
1427 7.860945830529114 -1.3721205086209551 0.0053523748098038533 164 127 56 0.28372766223190471 6 1241 4 610
1428 -0.29792690708774905 -1.4005442269297623 -0.0043672296466654515 164 134 58 0.96810058084535644 6 1489 8 826 4 615 5 391
1429 2.3089295113393424 -1.5322994594243879 0.016480231182564729 155 129 59 0.51733681266441955 7 1161 9 672
1431 8.2925552325589269 -1.6429033876550567 -0.0031957530194302503 96 68 25 0.40507084709434982 6 1274 4 642
1432 7.8615304908989287 -1.6468230733918841 -0.0066507014565631208 97 78 39 1.1034423065642267 6 1289 4 645 5 596
1433 6.1152344420739757 -1.7281568904367477 0.0027902750026895583 124 93 40 1.765750726304038 5 561 6 1377 10 696 12 696 4 654
1434 6.1464102640118332 -1.7343295789452902 0.0033841618470156036 117 91 36 1.4852259149398046 6 1378 10 697 12 697 4 655 13 732
1435 8.1730528394368953 -1.8756138958555026 -0.0017464956453647794 96 71 28 1.154408749455738 6 1323 4 676
1436 8.1899079255697114 -1.88190973217391 -0.0089544478353153472 95 72 28 1.9457335081550728 6 1324 4 677
1437 1.8120043053271486 -1.878568158759419 -0.0013324912745880111 100 75 28 0.80239913187219591 11 633 4 679
1438 7.7793181340186894 -1.8898814484320374 -0.017025910143926251 124 102 45 0.89471445962832619 6 1340 4 688
1439 8.2091213659578859 -1.8928632965001362 -0.0080197555964085735 93 68 26 3.1082319872268753 6 1326 4 689
1440 8.2910805983600273 -1.9720818506335032 -0.006489942041829325 84 64 26 0.82223030950906606 6 1336 4 704
1441 1.0003468779917435 -2.0028427448528276 -0.002936045188549678 121 94 43 1.243572045741542 10 831 4 715 6 1516 13 798 1 987 2 859 5 479 7 1212 9 720 10 832 11 653 12 808
1443 -1.4457195190758101 -2.0449739323200213 0.0027669942047846901 106 81 33 1.9221406298411348 11 669 12 845 13 825 11 668 4 720 13 819 1 1023
1444 -1.4118392854291115 -2.0754881668205907 0.0067456778707860711 99 76 29 1.5121467824807038 11 673 4 721
1445 7.683088532221662 -2.1663898125589864 -0.0057924202160012208 124 99 47 1.2744358520074555 6 1410 4 738 5 648
1447 3.769215306945298 -2.2363931319381058 -0.0094528905963992826 104 81 32 1.0077744752808921 11 654 13 823 12 803
1450 7.7883122615193763 -2.2447429728806187 -0.0027953698849545695 119 93 40 1.0453438569298061 6 1428 4 757
1452 -1.5001588883728374 -2.405687331421833 -0.0049915561416379777 134 106 47 2.0580277390649253 6 1576 7 1259 8 886 10 880 13 872 4 775
1455 0.0019408154959541912 -3.3986971435748274 -0.011330367397302782 104 82 32 1.6355002880061966 8 954 11 731 12 960 4 828 9 780
1457 0.0019232084628186209 -3.9998825100619779 0.010729521951645119 113 85 34 0.99019188346799092 13 938 4 879 6 1625
1458 -1.3844274163258425 -4.1434170214538018 0.011916157856672115 117 93 40 1.009447027563823 11 799 12 1032 4 891 7 1371
1460 -1.9284395541536405 -4.4179995909306653 0.024564060399827971 105 80 29 1.7602466879824603 12 1052 13 974 4 912 11 821
1461 -0.29639095288746187 -4.8043733870230989 0.0021456733043274771 130 100 38 0.50164989103339519 13 986 4 939
1462 -0.26859502010196579 -5.4019152069939684 0.0034552916975713445 102 79 31 1.1334002769947038 11 842 12 1081 10 975 13 1001 2 1069 4 963
1465 -1.4037479882703905 -6.1267513904599147 0.0083137734759179543 93 72 29 1.3444509106849161 11 880 12 1131 4 1015 11 879
1466 -0.24503053266194788 -6.196159277119234 -0.0091424510879334515 100 80 32 0.94618631952881016 11 877 13 1041 4 1020
1470 0.0038034058083160249 -6.7895120793381505 0.014063967343539912 77 58 22 0.0038786224810033517 11 898 4 1064
1474 -4.2679852489526962 3.3931858043982204 0.016502673566435581 65 49 35 2.0091481271595333 6 842 5 39
1475 -3.8171360585845711 1.3213060301040438 -0.05217947161285532 137 112 57 1.1730447935300179 7 810 8 499 9 478
1476 -2.2818954249633068 1.4236995946241404 0.026281190636691931 97 75 30 0.31324773409570894 11 353 13 336
1479 2.0019017932028085 0.8283045317655845 0.032355034799255354 128 103 50 3.6282876433550717 9 381 5 218
1480 -1.0025342932701975 0.26262942067381484 -0.0034351360552881275 125 100 52 0.98032967249930991 8 625 5 222
1483 1.7972757115738967 0.28202987648004407 -0.0049302821190017349 112 85 32 0.58971404244394732 10 497 11 419
1487 9.9629418916058601 0.58427381433741499 -0.087637807500438938 64 53 34 0.36176825345455343 6 814 5 380
1489 7.7594549035327249 -0.02339774050754841 -0.043310686320062373 113 90 51 0.063336727267096632 6 972 5 398
1490 7.6131763586117538 0.013561713579743444 0.033753871832583368 123 94 48 0.091147410066211187 6 977 5 405
1491 9.9613111188473429 0.12365533362368401 -0.2572582743014849 49 42 29 3.1063941128502228 6 852 5 407
1492 7.3894086133702617 -0.27867383435882032 0.0051465877405943153 155 123 61 2.3216930718240194 6 1038 5 422
1493 8.1721939937832246 -0.30597727302873956 -0.023695828326387641 148 122 63 1.3684697559567054 6 1009 5 441
1494 -1.4343550280959949 -2.368837929553596 -0.018867089799557042 125 98 42 1.573559946708178 6 1569 13 866 5 465
1495 9.9502357739750558 -0.4773935153212106 -0.15437509843656616 43 38 34 1.5629032829011955 6 960 5 481
1496 9.9300934955422999 -0.51280254852824358 -0.15998966804647655 52 47 33 0.32099825021177408 6 967 5 485
1497 9.9240632230854633 -0.52767587377176572 -0.15246179623615641 66 56 38 0.89238876706748615 6 969 5 489
1499 8.781749200309088 -0.99751450856447532 0.071656885785043825 131 118 66 0.61580663295069749 6 1140 5 545
1500 9.6364057491761219 -1.1580971835379725 -0.13911775257525186 98 82 49 1.7381954213627195 6 1104 5 558
1501 7.8641746307559508 -1.3933291644815473 -0.010950457692765472 158 132 69 0.030261166364733121 6 1244 5 562
1502 9.8510152327347811 -1.2803379671029125 -0.18168054946517001 63 53 33 0.16336774948102578 6 1114 5 572
1503 9.8766684813900838 -1.2676671477009012 -0.16602499996735698 55 48 35 0.89009835232614143 6 1112 5 573
1504 9.7939875019523264 -1.3852149667716365 -0.16113093902723793 66 52 34 0.79977957946017164 6 1146 5 587
1505 9.8613832393616647 -1.4179849607222939 -0.1911074321288202 58 47 23 1.2212795234165923 6 1147 5 588
1506 7.6884845172268443 -1.6401480449388048 0.0033973507548576867 148 123 64 0.085160359524580231 6 1294 5 593
1507 7.6815156529566258 -1.9780706860527792 -0.0059119176947075936 132 113 58 0.79436463412334934 6 1362 5 624
1508 10.088577662944228 -1.8040248207720233 -0.21068415258450937 36 30 24 1.3059163168702979 6 1213 5 633
1509 10.107578302035964 -1.7983715307065213 -0.20979123963540769 29 23 21 0.84605998361587409 6 1209 5 635
1510 9.6819631343845902 -1.7787478553602585 -0.10124766611028857 71 59 34 0.77863625430752736 6 1239 5 637
1511 9.6816428199792863 -1.791445674690973 -0.091187874979051273 62 54 34 0.43647113128267206 6 1242 5 640
1512 -1.0252721886454981 -3.9986958912297941 0.0057038649291088718 159 131 63 1.2585310597656039 7 1356 13 941 5 654
1513 7.774186781601526 -2.2361310714230447 0.0087014689950027126 109 87 45 0.29411983313350409 6 1427 5 664
1514 -1.393662640981739 -4.4782489432816028 -0.093778975795026573 104 88 42 2.9178748604267639 7 1381 11 814
1515 9.5948732448177552 -2.5606256722712621 -0.15477062148781123 46 39 31 1.6157430125018202 6 1398 5 698
1516 9.5889933185126601 -2.5754881670907901 -0.14653432346155812 37 35 29 2.2064378033092353 6 1402 5 700
1518 1.9765933733851708 8.1681261984806497 0.0097633518881391872 156 125 63 1.3300868109807278 8 134 6 75 7 91
1519 1.5599317021402526 8.163231843229644 0.002584716125792497 135 103 57 2.598346054128946 7 99 8 120 9 1 6 83 7 100 8 119
1520 1.3680285306749265 8.1579005759730681 -0.0099507187693824856 163 134 66 2.271089415166851 8 112 9 7 6 95 7 97 9 6
1524 1.9748524264446907 7.8292170727620238 -0.010595172196515732 147 115 52 1.4519429013012464 8 174 9 21 6 114 10 16
1525 1.4707833164347484 7.921058364012362 -0.0019207988340414566 152 123 56 2.1115620021479806 8 146 9 26 6 121 8 145 9 25
1526 1.4614388401416285 7.9311455458183522 0.024314609598899826 155 132 66 2.1806200500368718 9 27 6 123 7 151 7 150
1527 1.0000509302336296 7.9982418415899108 0.0070000601445012189 160 132 65 1.4743511253694646 8 128 9 31 6 133
1531 1.9749369850716771 7.6411796608108551 -0.014334274800026631 136 106 48 2.0325371523299247 8 191 9 40 6 148 9 41 10 24 10 25
1532 1.8865911922470255 7.5587414315659727 0.0026381884595210125 151 124 63 1.9561111711721257 8 198 9 46 6 168 7 192 9 45
1534 1.371977098361016 7.6448334576896224 0.00093814156712353225 152 125 64 2.0669389799136892 7 187 8 182 9 49 6 173
1535 1.4509880298484579 7.5663627222641097 -0.00380803525566089 150 123 64 2.0939723027499824 8 186 9 50 6 180
1536 1.4689184060350478 7.56442876472902 0.0025580060444417834 135 110 58 1.2915908581042859 7 191 8 190 9 51 6 181 10 28
1537 1.4897621141702679 7.5617269495193868 0.0065191632354146198 141 112 63 1.6097960930235542 7 196 9 52 6 182
1538 0.24791950958256329 7.8053126489009328 0.0071021879172160161 163 130 64 0.94806290205707278 8 133 6 183
1539 0.26779326520575625 7.7984675353327955 0.010421306878819482 158 127 63 2.1921166425837924 8 135 9 53 6 184 7 169 9 54
1540 -0.011383194379714818 7.7922218443003128 -0.0083043137926546006 135 103 53 1.2670941430956733 8 124 6 192
1541 -1.0246955220349312 7.9898653071897572 -0.0018384843177449283 165 134 64 0.32383371297023233 8 92 9 60
1542 -1.0062807969524257 7.9494124888489166 -0.041858565713708711 166 143 77 1.6471858514749931 8 93 7 152
1543 -0.27378335372134616 7.7894526527857897 -0.0075483480352165726 160 126 62 2.2167891696233215 8 117 6 203 9 62
1544 0.26952175726791894 7.5938238294871736 -0.0012893597708739425 164 133 63 1.4428642009457269 8 155 6 208 9 64
1549 -0.26996452108408742 7.4048302324551498 -0.0015059302238416038 150 115 51 0.81661491783337092 13 1 6 246
1550 0.27615601338588575 7.2034678823917089 0.013784982890139663 138 114 51 0.69580807472479178 9 81 13 10 6 256
1551 -0.55618755474197823 7.0006719654133365 -0.0049587251319807768 189 153 73 2.2190534727056099 8 205 6 294
1552 -0.28270876069834056 6.7696238464607523 -0.031495604647357053 163 134 63 0.11497030180617748 8 225 9 104
1553 -0.26871499065603682 6.6033035078306677 0.007368046368678465 127 100 45 1.4571439726641446 9 116 6 343 8 235 13 25 12 12 10 68 11 101 1 217 2 75
1554 0.27242360450355302 6.3518336039621524 -0.047136426637044058 156 130 67 1.8308244258690032 7 301 8 251 9 121
1558 -0.29435752518057584 5.6013552460607174 0.0020685589379303916 165 139 59 0.72299834323399192 8 312 9 181 6 494 10 131
1559 0.28892783615098527 5.1918317622448678 -0.00055374165460215813 176 143 72 1.8332335685960615 9 189 6 518 7 436
1560 -0.26717658933959559 4.7229142760129088 -0.081810706510278136 157 134 69 2.1406489924375256 8 365 9 204 7 469 7 473
1561 0.27745213180079686 4.5056965613076931 -0.10151291133404686 170 141 76 2.4448856124598444 7 483 8 377 7 484 8 376
1563 1.3732078057806176 3.6586059204697485 0.0045791170788432034 129 104 49 2.1855747566133452 7 582 12 187 13 168 9 248 8 432 7 584 10 207 12 188 2 248 1 394 6 689 6 687
1564 0.98397503721644375 1.9816962023369447 -0.023957926253693217 150 117 55 0.42622592427597583 8 524 9 299 6 877
1567 -2.2003895818879591 1.3316141877269154 -0.047763067765978294 143 113 52 1.5693141982787004 8 521 9 428
1568 0.2676255460628727 0.79831497219666392 -0.0006840135647097833 126 100 45 1.7375607181174784 7 838 8 599 9 436 4 300 11 383 2 457 6 1106 10 438 12 385 13 382 4 302 5 181 7 841 1 593 9 437
1571 2.5923660969922677 -0.25080768696344719 -0.0063402658959094398 113 88 39 1.3401709967909761 8 754 10 552 11 492 4 486
1572 1.9989084712035385 -0.28358381803728616 -0.0089251259978788237 121 91 40 1.5835189228748685 10 572 6 1254
1574 1.7954976862626164 -0.27216889081377593 -0.0026142692086187141 126 100 43 1.9106730144722808 8 732 12 565 10 579 11 505 13 581 2 599 7 1043 8 737 12 559 10 574 9 532 6 1257 1 732 4 508 5 331 6 1260 9 535
1575 1.9971804078319229 -0.42098735848412461 -0.010601594414073772 125 100 50 2.5869625725159975 7 1069 8 756 10 597
1576 -0.0021699392803786214 -0.20246883330004942 -0.0020850921004134451 91 70 31 1.1232997265173368 8 688 9 568 6 1305 7 1038 12 576 13 572 1 765 10 616 2 625 5 300 11 519 4 481
1577 3.128150232121147 -1.3852424230114468 -0.89702385604863644 128 92 41 1.1743761912250448 12 667 6 1307
1578 -2.2997073660279579 0.2996547750619491 0.14600149705911081 141 111 44 3.555483936568308 12 512 6 1308
1579 -1.6025052622055018 -0.27212398626000783 -0.00065180047901923542 126 100 45 1.837296507084061 8 665 12 608 2 676 6 1380 9 615 10 665 11 544 13 594 1 819 5 273 7 1053 7 1057 1 821 6 1385
1580 0.00046281607580381435 -0.60096674854964183 -0.0022632716761197148 93 70 30 1.3876660108661794 8 728 10 672 9 613 7 1095 12 638 1 833 2 688 6 1390 11 569 13 642 4 559 5 332
1581 -1.4049582437606736 -1.6983167290679579 -0.0018390434551937907 112 88 38 1.9139629024801503 8 833 10 843 11 643 6 1525
1585 0.26482163698133343 -2.4005004396346523 0.00025919211580410426 125 99 44 1.875127713624563 11 685 6 1551 7 1253 9 745 12 871 4 774 8 911 6 1552 10 865 1 1030 2 903 11 686 5 503 9 746 12 872 13 856
1588 -0.27133920403015621 8.5331269225227864 -0.061638241196900166 155 137 74 1.3867541920145381 8 45 7 9
1589 -0.29760111692269575 8.5246492839667702 -0.066524629257163403 167 145 74 2.1223715674019745 8 43 7 12
1590 1.5559102177368243 8.3383828232088284 -0.086488370549442653 158 131 67 2.4888715616900527 8 102 7 42
1591 1.5680115332258289 8.3499812343809179 -0.060877372350362405 141 116 66 1.3485823422358405 8 105 7 45
1594 -0.0080295464014619768 8.3993181814738698 0.017159800369117652 119 96 53 1.8602963951775264 9 10 7 58 8 69
1596 -0.27511209542465342 8.28166666169842 -0.12815012171098025 141 119 65 1.3612519336565647 9 13 7 60
1598 1.3840695470543396 8.0983262139307168 -0.074766414314796734 154 129 69 1.5456621600591698 8 114 9 8 7 102
1603 0.98743311526455191 7.9615289546945602 -0.037856736710921525 153 122 60 0.13490871619900491 8 127 9 30
1604 1.0254686428145721 8.1085270526979354 0.15548581330779782 163 140 71 1.7755747001288835 9 32 7 135
1605 1.8963425961219074 7.9126172611761199 0.00031311275008011222 158 124 60 1.5603076194301024 8 162 9 17 7 145
1606 2.0015673085906616 7.4850164491699589 -0.17693858037642879 161 136 72 1.5404582402009881 8 192 7 185
1607 1.3578494375994246 7.6419997424846562 -0.013079212079656925 159 138 71 2.3770796699631607 8 180 9 47 7 186
1608 1.4849263588414328 7.4186733774669049 -0.16322317534639161 149 123 74 1.6723626744942157 8 189 7 195
1612 -0.28397909571203273 7.3516150495687809 -0.044585513342095859 163 138 71 1.4947236246857678 8 169 9 76 7 230
1614 0.54356712670187057 6.9747567121209508 -0.017597866186048645 167 137 71 1.3725053516804515 9 89 7 258 8 220
1615 -0.54064160332843003 6.9531433520554371 -0.043098411274275994 166 140 70 1.5155594327354713 9 95 7 264 8 206
1617 -0.55030505720256484 6.9942206264632363 0.008225898931257504 155 127 62 2.016734859887952 9 94 7 266 10 52
1621 1.8620154065172214 6.3870949323195827 -0.058182897728067652 169 141 73 0.83726583057816284 9 98 7 293
1622 0.021214897972468741 6.4680702850739831 0.0943051583796818 129 100 55 1.0466777660898077 9 133 7 310
1624 0.27475159364699592 6.1351935323576283 -0.062183400965859406 168 140 71 1.6485889791019148 8 267 7 333
1625 1.6101119785971323 6.0002156507440452 -0.078865703928027275 156 130 71 1.2336559244292524 8 303 7 347
1628 1.9763255648951503 5.5656904884399427 -0.027412013415504664 151 120 58 0.50887364498377197 13 88 7 391
1633 -0.0014952380672544742 5.1793914881837688 -0.017628965871378004 129 99 53 0.94633717681634588 9 192 7 433 8 350
1635 1.8627211415720093 4.4153726436103575 -0.027186429029303009 161 137 64 2.126522041498256 8 397 10 156 7 493
1637 -0.28505157697083311 3.7981863430704079 -0.00027628667556162654 132 105 47 2.2452494644760748 11 232 10 220 7 574 12 184 13 160 2 255 4 119 11 233 13 161 8 403 6 713 10 221 1 402 12 185 9 256 7 575
1638 2.7604687183863916 1.8827798210010585 -1.9245292650238821 167 143 72 2.2587578515663456 9 228 7 576
1641 1.3723203302183722 2.3715841984446686 0.018597599507074892 111 89 42 1.1376225370158801 11 272 7 685 10 264
1642 -4.2975038058344071 2.2428733622416166 0.012877984048633479 101 79 35 1.4033784744723532 8 441 9 362 11 301 7 711 13 246 1 517 2 373 7 707 10 328 11 299 12 281 9 356
1643 1.4844359410709247 1.9741125844771141 0.0012433962067239985 130 110 50 1.7187757224927573 8 532 11 291 7 721
1644 1.864265593537527 1.5980111820361269 -0.0080446275567873909 132 105 51 1.3685186646099292 8 553 9 311 10 299 7 771
1646 6.0105123124196203 0.97502735773807614 -0.025978309768420599 153 129 67 1.088142097452953 8 700 9 298 7 815
1647 5.9919455344174262 1.0161730711523496 0.020225792493594779 141 115 58 1.3194867160645336 9 297 7 818 13 355
1648 4.9939647348281753 0.52139310664301053 -0.0020604169803988613 131 105 50 1.0817460686766187 8 727 9 334 7 853 13 390 1 558 2 415 4 318 6 979 12 383
1649 1.9982011608815273 0.38829580023056565 -0.020710426166899221 117 96 49 1.5087559040318286 8 675 9 443 7 864 1 615
1650 6.2376050420818272 0.12489611569380289 -0.14457855680489365 164 141 75 2.2574049668397098 8 784 7 866
1651 5.1970979282620453 0.26694329198869621 -0.0060637798210328555 159 136 70 1.8862616527148941 9 353 7 873 8 759
1652 4.7970385715319921 0.27155056384368964 0.007690160132548314 152 129 65 1.172070554398186 8 753 9 370 7 881
1653 -4.0120170221182461 0.44987384481084847 -0.06260079000728147 119 98 50 2.0296417940609448 9 579 7 887
1654 4.9949116824591409 0.0028304386806497781 -0.0013023948063936753 127 107 56 2.8827704604435693 8 783 7 945
1655 4.8004428262375907 -0.0045821222100848368 -0.0068563425685356089 122 100 48 1.6024231701707488 8 780 7 947 9 412
1657 5.021852028431085 -0.63979969672181303 -0.12656740498016819 152 133 68 1.5418048332308489 8 857 7 1061
1661 5.7121426655690595 -1.6222553805679429 0.0031538399393786229 148 129 62 0.71476197371937089 8 939 7 1155
1662 -1.9861659761462542 -1.7221627048557457 -0.060807890832550601 141 116 56 1.1843550590062528 8 808 7 1185
1663 -0.28737637191861659 8.3755532534094002 -0.018096556692025409 160 133 65 0.46743617061748316 9 14 8 64
1664 0.0086825411523847301 8.401468040772663 0.011609012516166273 127 100 50 0.47774753937690007 9 9 8 70
1665 -0.29514779597246438 8.1504875511125761 -0.05171728279367941 157 129 60 0.44335344463888349 9 35 8 88
1666 -0.28152262428422509 8.1510141828040794 -0.048520699593695808 156 126 65 0.58183579578244937 9 36 8 90
1667 -1.0001451451479197 7.9885272063471557 -0.010514095481278489 115 90 40 2.349223656528602 9 59 11 41
1668 -0.018320968507457343 8.1769706784078178 -0.018803084667780665 131 99 51 0.91122863177123281 9 33 8 94
1669 -0.0041923588619320138 8.177353505332098 -0.021024333060996391 124 98 51 0.060627691218802404 9 28 8 95
1670 0.0091413403047747571 8.1771838630620337 -0.021284058156848206 128 99 49 0.69152960536827435 9 29 8 96
1671 0.2628400508482911 8.1395103987191799 -0.064293847553446123 146 116 61 0.033387215960040115 9 19 8 99
1672 -1.8909600338239707 7.6121299846479022 -0.015542666135924556 138 110 55 0.96288904688747723 9 82 10 37 8 107
1673 0.0031837455496247658 7.9531560073846972 -0.044337437698483653 126 99 51 0.10123841893802353 9 42 8 110
1674 -0.30243034304368022 7.7437007184050168 -0.055403731140762601 171 132 65 0.183322329351574 9 63 8 115
1675 -0.29194673867429399 7.6288787371893267 0.046523468206491406 159 132 62 0.5560307510936604 9 71 8 141
1678 -0.29933759906172558 7.3529335239188569 -0.048517415638321966 168 137 66 0.069612344504597912 9 78 8 167
1679 -0.27182878026432278 7.3530804585545049 -0.0484629594276417 152 122 63 0.19566573217085526 9 77 8 170
1680 1.9695126088611155 7.85186402237394 0.032276681640008756 98 72 28 3.7989690264792024 10 17 11 45
1681 -0.0061034895616257773 7.3801025836356775 -0.015590927289874193 127 99 50 0.93021405153163772 9 75 8 177
1682 0.0076387369228897613 7.3797739297309226 -0.018648363432817401 131 98 49 1.0619951220462214 9 74 8 178
1683 1.3677878965430845 7.6706803733477056 0.012797795865424814 120 92 41 1.552455731430592 10 26 11 61 8 179
1684 -0.28216973171278409 7.2087596297958143 0.015088632200990071 123 98 44 1.9975180288751637 9 86 11 85 8 187 13 7 2 36
1685 -0.27063904600411792 7.2029738457557926 0.011355538596798463 133 105 50 1.4098043809153855 9 85 11 87 8 188
1686 0.0017764011814236592 7.195588052315375 0.0019396466145231608 127 95 45 0.042905758824978976 9 84 8 195
1687 1.8681608771327931 7.560884605187991 0.0024926303977785315 140 116 60 0.026057044443933395 9 48 8 197
1689 2.5433911853218967 6.7408602700083353 -0.056412647819327012 161 134 67 0.063531846977356005 9 79 8 255
1690 3.0793810582946746 5.6649935058300063 -0.95104873435139581 152 129 62 0.40476980262202022 9 88 8 285
1691 -2.06611336813011 3.6060145240239478 -1.1100720232762082 159 124 63 0.69978009867856761 9 234 8 358
1692 6.599607810315586 5.4984276745232048 -0.84325016110342854 66 59 32 0.084918859686445247 9 68 8 366
1693 -4.9557823487613062 2.193117868653907 -0.8965118580100554 53 46 27 1.2982938635258272 9 306 8 394
1694 4.1552366451905201 3.7357203845330158 -1.1556166220392048 160 128 64 0.71846546305818093 9 179 8 400
1695 -4.3159120819772161 1.6304873743874113 0.010529036637354975 115 90 34 1.7063394304611255 9 459 10 423 13 315
1696 -4.2316947112395882 1.3834527983894471 -0.0095862992791054587 98 73 28 1.6202878325780394 10 470 11 370 13 345 12 376
1699 -4.4150519290165837 -0.044142032936782642 -0.040921417379887234 125 102 46 0.65067681324682636 9 656 8 575
1700 -4.4004500376302884 -0.046134017431786523 -0.042941504109600619 124 103 47 1.2377284780496054 9 657 8 576
1701 -4.2383296052831021 -0.067697856506566581 -0.059264710829535917 135 104 50 0.66697671012312576 9 653 8 578
1702 -4.2203768122976975 -0.054605033616356484 -0.046917764360006407 128 104 47 1.3406688983517661 9 651 8 579
1703 -3.8198527465574994 -0.046215139281945344 -0.046442004546154554 131 103 44 0.049611623155462969 9 636 8 588
1704 -2.0060014249293716 0.20648811898033256 -0.057951370818882235 107 83 35 0.95072809169590933 10 598 9 562
1705 5.383465744916772 -0.0038913720198041797 -0.0043767786170358144 129 105 48 0.75934806722267245 9 395 8 801
1706 5.606014903645443 -0.028833389911148036 -0.02801134313621214 128 101 45 1.3546876365558367 9 388 8 809
1707 5.6216007281469373 -0.027780342512458624 -0.03222244016555708 134 107 46 0.96361252981488943 9 386 8 810
1708 0.0002431985312846503 -3.0254163610307474 -0.058625364182053823 135 108 47 2.6712487203283048 9 771 8 943
1709 -0.0069943161328678933 -3.1451314525866736 0.02296402828479658 136 106 51 2.3118567398648455 9 776 8 951
1710 0.010638786035292268 -3.5352429836967048 0.022968771177136329 140 109 51 0.64334419337716153 9 782 8 956
1713 -0.292040831160921 3.1902639667622013 -0.01438596105686194 149 121 50 0.015205657085139693 12 223 9 267
1714 -4.2005379093990181 3.4317609843102033 0.043783756939038063 115 89 41 0.31419536157414646 10 255 9 285
1715 -2.3007898814362764 2.1897199972221504 -0.0015019600251190465 133 106 48 0.40180710385106638 10 307 9 325
1716 2.0006959332797245 -0.18180360296610104 0.00091610376301637896 116 87 37 0.4909858797458716 12 536 9 516
1717 -1.7438177592019977 -0.29768340943803984 -0.085916308452811577 131 98 39 0.31176777095633124 12 613 13 603
1721 7.5673104672524705 2.6661163255974842 -1.3518698868430632 67 54 26 3.0840692242329304 12 215 10 166 13 217
1722 -0.0050252173350000158 4.4042495126745411 0.01748418416695376 105 75 30 0.099566241657521509 12 152 10 171
1723 1.98287513185414 3.8242099256947752 0.0035324335210600742 122 92 41 1.0762081715251353 12 179 10 194 2 236 6 645 7 568
1724 -0.006769439720680984 4.0034140816109538 0.0097638910371677119 101 75 29 0.060796482744465329 12 175 10 200
1728 6.5899486231774462 -0.30504420805638716 0.0080875836070296026 116 91 39 0.29330217793645302 13 558 10 457
1729 2.9947621154607855 -0.34612054544560933 0.017506044413883776 117 82 33 0.22269704890433473 12 557 10 562
1730 1.999088166867778 -0.52349078135040206 0.017427597389828159 100 79 31 2.0487369627181979 13 626 10 617
1731 -0.29646840384635731 -0.60650816713412137 -0.0063286273249624153 116 92 38 0.57260217910122635 11 574 13 644 10 677
1732 6.181174624342761 -2.2515153579233784 -0.0013197974906330075 108 82 36 0.8158933875899399 12 775 13 808 10 778 5 618
1735 -0.53418809568614656 -5.0006620140601248 0.0082526831145786801 108 85 33 1.9441659670167861 13 993 10 967 4 946 2 1059 13 991 12 1069 10 968 11 831 4 947
1736 0.26881612685239598 -5.2037459775075696 0.0045351654734524785 97 76 29 1.5861067516364575 13 995 10 969 4 960 11 832 12 1072 2 1062 2 1061
1737 -8.1151493730903663 -4.5507592906443506 -0.18945789455759396 16 12 7 0.062711831394096751 12 1082 10 982
1738 -0.00030724414829526591 -5.7919254186674314 0.015490578193326844 69 55 23 1.6215342557273846 13 1013 10 985
1741 0.26992080945671054 -6.3886897386203376 0.029051719546592056 97 78 33 2.5039241645549239 12 1136 13 1047 10 1016
1744 0.0033126653481794243 -6.8125841096454227 0.0075720618220118281 64 50 21 1.0405500437222812 13 1062 10 1034
1745 -5.9341462340067048 4.130300612978389 0.7209403522311042 14 9 1 2.2489758316136479 13 135 11 244
1746 2.6034019088106555 0.28188116489103515 -0.018474628834685879 116 89 32 0.40237953214425581 12 431 11 409
1747 -4.4556098003090456 -0.26143773397556613 0.076793922229052125 121 90 35 1.2130154457405262 12 645 13 613
1748 5.2401216030081432 5.8374909975999207 -0.87281763011858615 24 21 13 1.8558105150307851 13 74 12 43
1749 5.1930195242706834 5.8369550738980189 -0.84713219335248013 30 23 13 1.8368040039746498 13 73 12 45
1750 6.1136334300147155 4.7127456031016353 -1.3374799298622702 61 49 24 0.28629750911520596 13 110 12 111
1751 6.2193067347516306 4.544014281996505 -1.2648672252713424 60 50 28 0.84903240475694197 13 116 12 116
1752 6.4467207806847702 4.2963736055379202 -1.2642803586158258 51 46 23 1.309546739132244 13 126 12 129
1753 6.4695892808641036 4.1635053429509004 -1.2681371645472186 77 64 28 0.31929790641121913 13 134 12 133
1754 6.686499858135063 4.1054340026569758 -1.3808071690644956 53 43 24 2.004202887466219 13 138 12 135
1755 6.818421346281613 3.933230611997014 -1.500019650512284 70 57 28 0.25710243663632071 13 151 12 144
1756 6.8212445828890242 3.9094073110329157 -1.5024262856044939 80 67 30 0.17490544955993637 13 152 12 146
1757 7.0326146336467978 3.557067912085826 -1.3237056896600001 66 56 28 1.0589677813885447 13 177 12 170
1758 7.5130921016402334 2.6911152376686407 -1.3264573457103184 68 57 26 0.80156513065552226 13 210 12 212
1759 7.5744295801278598 2.6666761385336066 -1.3770315669843478 71 56 28 0.3961501120263477 13 216 12 213
1760 11.108276392274561 1.2383428101486513 -1.4526061665497665 54 43 28 3.4589299169301997 13 325 12 256
1761 7.2418225367386873 0.61147431346225078 -0.84177351458691851 113 87 35 0.70240071717699637 13 385 12 357
1762 11.008272403333475 -0.26223753795419458 -0.38827052212595037 38 28 25 1.5157181088889771 13 511 12 406
1763 7.2893765560149015 0.0012903002412502176 -0.12064974396477023 46 34 12 2.7080335687822243 13 466 12 417
1764 6.8321156964027097 -0.0023398183636453582 0.00122660333733745 69 53 21 0.56683987149996273 13 481 12 429
1765 10.247410248421115 -0.93283274258285187 -0.44584193843631392 53 46 21 1.2995562847270825 13 646 12 538
1766 10.311754414685337 -0.92546395666992687 -0.36417206825350024 56 53 48 1.4312079662476873 13 648 12 539
1767 10.33514401049888 -0.92558624050943217 -0.35527485825229832 39 36 39 1.3832762901358573 13 649 12 540
1768 -4.7499208848764471 0.26542665773579477 -0.084288529731837411 118 88 33 1.0584286956055426 13 470 12 554
1769 7.5776873403359088 -1.8071798470609328 -0.958577569231578 59 50 25 0.49639810361142717 13 726 12 671
1770 9.9017690209281994 -1.9400386957737012 -0.08079336107904328 49 37 53 0.53491139410170907 13 740 12 682
1771 5.7866879644703557 -1.7263781450003772 -0.0312030494346212 114 88 37 0.11294661407720293 13 730 12 703
1772 7.456567488724934 -2.1312022954331571 -0.41652913342567666 49 38 25 2.1370132999601328 13 785 12 728
1773 9.388593738447927 -3.0516330300584 -0.7164578071098342 56 38 16 0.49798882835499197 13 886 12 822
1774 9.1793905678346146 -3.2040538448512321 -0.44841747498197337 49 37 18 0.5983124177726149 13 888 12 854
1775 0.0043619427081278746 -4.8001927405597931 -0.001674836030042662 84 68 26 0.42272361950259657 13 985 12 1058
1776 8.300227941561884 -5.9099962555194985 -0.28250694386008068 25 19 10 2.5522090824645547 13 999 12 1062
1777 -2.0005822228917958 -5.6628824229477965 0.019830218557380801 108 87 35 0.77543830344618114 13 1016 12 1103
1778 -0.22465432991646792 -6.6345319279437049 -0.10972756296742499 119 94 38 0.39909929346136885 13 1060 12 1148
1780 -0.27841039939316853 -3.4019263130433606 0.006627541050847314 125 99 43 1.774436144899648 4 827 6 1607 10 904 2 959 11 733 13 910 1 1079 4 826 6 1606 5 608 1 1080 11 734 2 960 12 963 7 1315
1781 1.5975076551223226 -0.26767017056579717 0.0056197097678274844 127 99 44 1.6591414272707998 8 730 13 576 4 507 8 731 11 509 4 490 7 1044 9 538 10 583 1 737 12 564 6 1263 5 328 13 583
1782 -2.2041332609860746 -0.27145123712188024 0.0033495092520223354 126 100 44 1.8815121386241249 6 1413 8 647 4 523 11 550 12 617 1 826 2 686 9 626 10 675 1 831 5 259 13 601 6 1409 7 1060
1783 -0.27852286135002957 -1.6017782395838873 -0.0059099104087882194 135 106 46 1.8423874236938591 4 636 5 415 8 852 10 821 11 629 8 850 9 713 12 767 13 742 2 836 2 839 6 1504 12 766 13 743 1 963 7 1181 9 714
1784 -0.27718820375094583 2.1994850979418814 -0.00023382061346574278 133 106 46 1.3211342410610309 5 100 6 885 8 495 2 332 4 180 7 702 10 288 11 285 12 258 13 247 1 476 9 303 10 287
1785 1.4720572738418489 6.0753526424604649 0.0047496847648025387 114 91 45 1.6107991554854875 2 108 6 372 8 298 9 134 10 86 12 49 13 48 1 251 2 107 7 350 9 135 10 87
1786 1.8843147495386632 5.9148438025473018 0.011236562020685945 126 96 45 1.9450785124702663 2 111 6 380 7 364 9 139 10 91 12 58 13 59 1 257 7 368 9 140
1787 3.9958607541600513 -0.0028610832299665622 -0.00059131707944694778 95 72 32 1.4691053961858502 4 426 11 435 8 760 12 463 13 494 1 636 6 1117 7 958 10 482 2 498 9 442
1788 1.9805865811494794 5.8241221309481856 0.0080805398199295664 122 93 42 1.8731396562792977 6 392 9 145 10 103 12 67 13 72 11 139 7 374 10 100 4 45 1 264 2 120 8 335 7 373 13 68
1789 -1.0232932470357334 6.0018017958292607 0.011258878464256303 142 118 55 1.8607182082427809 2 124 8 258 9 173 13 53 1 273 7 365 11 135 7 366 9 171
1790 1.7747098172297677 -2.2426870585840204 -0.0015068617100060383 122 95 40 2.4517920932206851 6 1521 11 665 4 750 8 926 13 836 12 829 5 522 6 1522 2 870 8 927 1 997 4 751 9 726 11 666 10 847 5 523
1791 -0.80127237900031467 -0.26783180610914165 0.001784228471889835 121 94 40 1.9772487509877716 2 657 5 290 6 1352 7 1052 9 588 11 536 12 596 1 801 4 521 8 680 10 644 13 590 1 798 4 511 12 591 10 639 9 585
1792 -0.79980141612820188 0.26626892593457696 -0.004357964665685902 125 99 43 1.490635658552564 8 628 12 475 2 562 7 909 9 534 10 558 13 447 1 699 4 381 6 1251 11 440 1 704
1793 0.79834868808431614 0.26961214052478932 6.660470051820383e-05 127 100 45 1.8629924751545626 6 1187 11 427 4 371 5 257 2 524 1 666 8 662 9 496 11 431 12 460 6 1190 10 524 13 442 7 905 5 258
1795 -0.002014485808723464 -2.1979883575102654 0.00035976785350698561 97 75 32 1.2512331722987 5 478 6 1538 9 736 10 856 11 674 4 744 7 1246 8 891 13 845 1 1018 2 892 12 846
1796 0.9938442098190875 5.9970581664332361 0.0056278030693184475 127 98 44 1.7286021384233663 7 355 10 95 9 149 13 56 6 397 10 97 1 258 12 54 2 112 4 35 6 398 11 131 13 57 8 295
1797 0.27100765651318942 -4.1995361439976575 0.00066148381096433901 118 95 43 1.7654704944208632 5 692 12 1025 4 899 11 785 13 953 7 1366 10 931 1 1115 2 996 5 691
1798 -0.0019845182703797245 -2.0025234278277244 -0.0035132378848399212 97 74 31 1.341465232302661 8 881 12 818 2 874 7 1215 9 730 13 803 1 999 5 455 6 1528 11 658 4 714 10 848
1799 4.1955904884915176 -0.2698382365707282 0.0016624730356025812 126 102 47 1.7898827429109334 4 494 10 521 6 1173 7 1024 10 522 8 804 2 541 13 565 1 677 7 1016 9 471 12 513 2 538 5 374 6 1168 9 469
1800 1.5322436423130865 8.1934356930904801 0.043439807142391214 134 109 60 2.4904657335831608 9 3 7 98 8 118 7 103
1802 5.1968936418992859 0.26509496407442645 0.002176641919043344 125 98 42 1.1760395803677406 6 1021 13 418 8 764 10 391 4 351 12 405 1 576 2 439
1803 1.5983804735130931 0.27119975127571755 0.0016159384540512594 125 97 43 1.541513841212536 2 503 5 277 7 900 9 470 10 503 11 423 12 448 13 437 1 642 2 504 6 1167 10 505 4 369 8 678
1804 1.7947213194180254 -0.0021333464394452145 -0.0025453361030583627 95 73 33 1.4269021804719442 2 546 4 435 5 309 9 504 1 685 10 541 12 495 6 1204 11 457 5 307 8 706 13 507 7 971
1805 -0.60182862734565001 0.2721394348066527 0.00077262033330284822 124 99 44 1.830598639616287 2 553 12 470 1 689 4 379 5 230 6 1247 7 910 9 527 10 553 11 438 13 445 1 694 2 558 8 631 12 473
1806 -1.4006345357796626 0.26907656051561174 -0.00032872505033232618 127 101 45 2.0830409055329411 4 380 5 215 9 546 13 444 1 718 6 1269 8 612 2 581 7 915 9 548 11 449 13 448 12 490 10 575 1 721
1807 -2.4013447338192333 0.27401093422064648 0.002409773066224741 134 108 49 1.8823389417774825 6 1301 7 917 1 735 4 384 8 591 12 509 2 602 10 603 11 459 1 738 7 930 9 570 5 189 6 1304 13 454
1808 0.26035564242160392 -3.4054967459657006 0.0031141049715171262 126 101 45 2.0563009471191593 4 829 7 1311 12 957 13 907 1 1077 6 1602 10 901 5 617 1 1075 13 906 4 830 6 1603 2 954 7 1312
1809 0.27269940515292024 5.3996251453091908 0.0018072052455938442 129 103 45 1.9113489832512121 8 339 12 99 11 162 4 66 10 133 9 184 2 151 1 298 13 94 6 501 12 98 4 65 11 163 8 338 9 185 7 417
1810 -1.8896864317493496 -2.0336603124141619 -0.0022227877943539736 124 100 44 2.3009061822222687 5 421 7 1231 13 821 4 718 6 1555 10 862 11 672 12 848 2 900 9 752 1 1026 7 1232 13 824 12 851 4 717 8 855 5 423 11 671 9 751 2 901 6 1553 10 863
1811 0.26669312982792692 -3.2023359840503995 0.0012326138725774593 119 96 43 1.8599655328941822 2 942 4 817 7 1296 9 775 13 901 1 1066 5 601 6 1596 10 895 11 720 12 940 1 1067 6 1595 11 721
1812 3.3957492717645046 -0.0033911920002046626 -0.001467617524249644 95 73 33 1.395819439344385 8 746 11 439 12 467 10 502 4 428 13 498 2 512 6 1145 1 650 9 460 7 963 5 336
1814 1.3765207634635013 6.3758801544579109 0.021389486535584989 120 94 37 2.1816698714015095 9 109 13 34 9 110 11 107 12 22
1816 4.2955537773399701 -1.9458897355829363 0.010459355555910869 134 107 47 2.2916925456991595 8 941 11 627 8 940 4 696 13 771 5 542 7 1201 9 670 13 778 5 544
1817 3.7957469219389246 -0.0013021758541881302 -0.0010838231738152175 94 73 32 1.3843844267360839 4 425 6 1126 8 755 11 436 7 959 9 447 13 496 1 639 12 465 10 491 2 501
1818 1.1951257622909577 -0.26780146043659148 -0.00061048056001922852 120 94 41 2.3910763206989452 4 505 5 319 8 718 10 596 12 568 9 544 10 591 11 511 13 578 11 515 13 584 5 321 7 1048 9 547 1 748 2 610 12 572 4 519 6 1280
1819 0.79825822888268461 -0.26843661150788106 -0.0039010141224062088 119 92 41 2.0067190358233558 6 1288 8 708 9 553 11 517 13 580 2 615 8 711 12 578 5 315 6 1292 9 555 10 607 1 755 4 516 13 585 7 1049 2 617 11 522
1820 -0.002445796097502223 -1.6003810626384236 -0.0038867461718885424 96 73 32 1.3454839091422264 6 1503 10 817 12 763 8 853 11 628 4 640 5 417 7 1177 1 954 2 829 13 741 9 710
1821 -0.27768752977318339 -2.1985988436666379 -0.0012083617219350879 135 107 48 2.0586781913644652 4 743 6 1542 8 889 9 742 8 890 11 677 7 1247 10 858 12 852 13 847 1 1022 2 896 5 472 6 1541 11 676 9 741 10 857
1823 1.3799341067383188 7.8504829022376859 0.0021185638915874991 138 111 49 2.1855188803846262 9 37 10 19 11 46 8 152 6 140
1824 0.00088857569338435108 -6.2035136817717618 0.01277987886316849 73 56 23 1.5253433506223733 13 1040 10 1008 11 876 4 1023
1825 -1.8144368664728561 1.3696756578227152 -0.010905324463758902 125 97 46 1.4358620694320883 7 808 11 354 12 360 10 395 8 527 9 417 8 528
1826 -0.002482417063312549 -6.0009774290227469 0.0091579332905924009 75 57 22 1.4650578249105262 11 861 4 1006 12 1106 13 1028 10 995
1827 0.5271785084708227 6.9998130486210686 0.0076603692766532769 128 103 48 2.0372402363219568 2 45 13 14 1 184 6 267 9 90 10 47 8 219 2 46 6 268 7 257 9 91 11 90
1828 -0.52748681863622071 7.002431911303046 0.0098559369960979776 134 109 51 1.8341199954706069 13 12 1 191 6 295 8 207 9 93 7 265 10 51 2 53 1 190
1829 -0.27732827505114321 4.7987599855621044 0.00052020836535372609 125 98 41 2.0116691634756263 10 154 12 128 4 81 12 127 2 181 11 180 13 106 1 323 2 182 6 583 9 206 11 181 7 472
1830 3.9953863762495554 0.98987467496409987 -0.00027445321182280449 124 98 44 1.9895857037911362 8 659 11 359 2 384 4 282 6 930 7 822 8 661 9 317 10 320 11 363 12 356 13 360 1 530 4 283 7 824 12 358
1831 -1.3917430076868957 -2.3298851611371512 -0.010108061694141041 125 99 41 2.6289756601497127 6 1567 12 880 13 855 8 883 4 759 4 763 9 759 10 872 5 460
1832 3.3963591028285829 -0.26992498646211316 0.00043062057564735931 121 97 43 1.7520105160115687 4 497 9 495 1 690 6 1195 10 542 13 568 8 775 9 497 7 1028 1 696 11 484 2 556 5 363 12 524
1833 1.8766234445469148 7.9245460779601808 0.004032015227594098 159 127 62 2.6720367212310925 7 143 9 15 6 108 7 144 8 158 9 16 6 109 8 161
1834 0.27063655446061741 -2.1997122051362172 -0.0012018766966400355 129 102 46 1.2794206135081059 5 487 8 896 7 1245 6 1534 1 1014 2 889 9 735 11 670 12 843 4 741 13 839 7 1244 10 854
1835 2.9949277048223313 0.52909141130600679 -0.00041352606968828655 126 99 43 1.6993380684614976 4 319 8 683 2 444 6 1053 7 855 9 390 11 391 13 399 1 580 10 408 12 391 5 274 10 402 11 390 4 317
1836 4.198054241485063 -2.2499948789334208 0.0018202320849053774 110 87 37 2.1023614022097563 7 1234 10 812 12 799 2 837 5 575 2 838 4 755 6 1492 12 798 13 820 1 962
1837 -1.8012490733297342 -0.26631041169882846 0.0017288535051433655 122 96 43 2.0429170328781345 5 268 6 1393 8 660 9 617 12 606 2 679 13 596 1 822 4 529 6 1389 9 620 11 546 2 677 7 1058 10 669
1838 -0.60257501431214433 -0.00057637158573839832 0.0013683902858495215 94 71 31 1.1585040546848964 6 1291 8 656 2 607 4 446 7 986 9 559 1 741 5 260 10 600 11 486 12 542 13 521
1839 1.5958141758948572 -0.00078689995754102594 0.00035805270843799325 93 72 32 1.2542432529449561 6 1214 9 506 11 460 13 506 1 688 2 551 5 305 7 974 10 544 8 704 4 439 12 500
1840 4.7947863489514733 -0.0024042773637694588 0.0068099374390220178 92 71 29 1.2495396090262887 4 421 13 490 2 483 6 1086 1 616 12 453 7 951 10 454
1841 3.6941581442772624 -2.1579874086023483 0.00099102107555688965 118 96 42 1.8165538445026315 2 831 4 730 6 1490 9 693 11 650 12 796 13 809 1 955 5 555 10 808 1 961 7 1220 8 944 9 694
1842 3.5978813435206676 -0.2728010690370043 -0.0018102409640872712 122 97 42 1.7563986073529854 2 550 7 1025 9 493 13 567 1 691 6 1188 10 539 4 492 5 366 12 528 8 781 11 479 10 536 12 522
1844 1.9965216231095564 -1.0055711643169682 0.0033014912574829696 128 101 44 1.8226769753293981 2 705 4 587 5 395 6 1394 7 1114 9 610 10 690 12 663 1 855 8 847 13 667 1 852 8 842 10 685 11 587
1845 -3.8016360250001249 -0.26925711601065999 0.002211150020833952 117 92 43 1.6325638762978685 7 1074 1 865 11 562 2 723 9 673 7 1082 8 616 13 609 10 733 12 636 1 867
